34.7459 -4.5146 1.36119
34.7813 -4.49334 1.36939
34.7923 -4.49196 1.35348
34.7978 -4.51062 1.36441
34.8217 -4.51147 1.34888
34.8624 -4.51223 1.35923
34.8555 -4.48433 1.35742
34.8732 -4.50249 1.3613
34.8959 -4.49613 1.35928
34.9109 -4.49506 1.36503
34.9469 -4.4917 1.34943
34.9726 -4.51205 1.35235
34.9622 -4.48762 1.35077
34.9966 -4.50461 1.35205
35.013 -4.48577 1.33435
35.033 -4.50247 1.34153
35.0534 -4.49703 1.35944
35.0574 -4.49277 1.34875
35.0662 -4.50397 1.35203
35.1001 -4.49201 1.34485
35.1059 -4.47851 1.32324
35.1209 -4.49333 1.30733
35.1579 -4.4877 1.34528
35.1581 -4.49039 1.34435
35.1881 -4.49256 1.37128
35.2195 -4.51403 1.32663
35.2027 -4.49331 1.35167
35.2671 -4.49557 1.3279
35.2616 -4.48861 1.34653
35.2849 -4.49769 1.34551
35.2923 -4.50161 1.33385
35.3458 -4.4988 1.32101
35.3454 -4.49057 1.32568
35.3491 -4.52195 1.34065
35.3813 -4.4876 1.33689
35.409 -4.50067 1.32675
35.4151 -4.5022 1.33832
35.4246 -4.51415 1.32724
35.4531 -4.49534 1.32234
35.4779 -4.49923 1.30632
35.5033 -4.49347 1.31479
35.5045 -4.47761 1.31061
35.5043 -4.51729 1.33273
35.5407 -4.48779 1.33021
35.5628 -4.50135 1.31414
35.5936 -4.4967 1.32665
35.5998 -4.49935 1.3237
35.6133 -4.50082 1.31823
35.622 -4.50768 1.33203
35.6473 -4.47724 1.33759
35.6934 -4.48962 1.33412
35.6892 -4.49922 1.31171
35.7466 -4.49846 1.31685
35.7507 -4.51743 1.32005
35.7559 -4.50597 1.30757
35.7689 -4.50919 1.33022
35.7878 -4.49762 1.30789
35.7936 -4.49617 1.32646
35.8267 -4.4988 1.30015
35.8443 -4.49893 1.31438
35.8716 -4.50607 1.30861
35.8669 -4.50412 1.30704
35.8991 -4.50149 1.32828
35.9238 -4.49546 1.31322
35.927 -4.50128 1.29647
35.9572 -4.50347 1.28874
35.9775 -4.49119 1.29926
35.9962 -4.50198 1.2949
36.009 -4.4976 1.30152
36.0437 -4.50099 1.29477
36.0465 -4.5037 1.30396
36.0595 -4.50661 1.28075
36.083 -4.50259 1.2943
36.0946 -4.51214 1.2832
36.1107 -4.49685 1.3029
36.127 -4.50985 1.29841
36.137 -4.51336 1.28973
36.1808 -4.51257 1.28037
36.2035 -4.51616 1.28637
36.2155 -4.494 1.2867
36.2483 -4.47031 1.28595
36.2652 -4.48986 1.27989
36.2801 -4.50379 1.27349
36.2906 -4.47904 1.27869
36.3145 -4.49068 1.29686
36.3425 -4.50619 1.28874
36.3488 -4.51009 1.28619
36.3528 -4.48867 1.26395
36.3815 -4.46705 1.27826
36.4122 -4.50755 1.28626
36.417 -4.49319 1.26446
36.4391 -4.50585 1.2744
36.442 -4.49744 1.29282
36.4811 -4.52061 1.28056
36.4844 -4.49107 1.2633
36.5088 -4.49284 1.27759
36.5258 -4.51051 1.25809
36.5625 -4.49351 1.27297
36.5758 -4.50205 1.26247
36.5929 -4.49483 1.276
36.5992 -4.50486 1.27888
36.6109 -4.50716 1.27428
36.6313 -4.49068 1.27943
36.67 -4.49057 1.26895
36.6725 -4.48129 1.27264
36.7068 -4.49805 1.25194
36.7286 -4.49563 1.26116
36.7505 -4.50587 1.25933
36.7555 -4.50301 1.26614
36.7828 -4.49876 1.26309
36.7904 -4.48011 1.24376
36.785 -4.50487 1.24913
36.8056 -4.49416 1.24312
36.84 -4.48072 1.25559
36.8559 -4.50526 1.26314
36.8832 -4.49787 1.24677
36.9083 -4.50172 1.27231
36.9311 -4.5034 1.24177
36.9176 -4.51193 1.25962
36.9679 -4.49083 1.25352
36.986 -4.5069 1.26331
37.0048 -4.49234 1.26496
36.9917 -4.49447 1.24073
37.0355 -4.49527 1.23937
37.0435 -4.50211 1.24198
37.0589 -4.49794 1.23031
37.0845 -4.49737 1.23815
37.0967 -4.49487 1.2506
37.1187 -4.50485 1.23709
37.1349 -4.50827 1.23772
37.17 -4.51277 1.24307
37.1647 -4.48576 1.217
37.1907 -4.50075 1.23659
37.2221 -4.49506 1.22145
37.2478 -4.48761 1.21546
37.2573 -4.4999 1.22841
37.2778 -4.50534 1.23779
37.2972 -4.50937 1.23384
37.3228 -4.49933 1.23923
37.3221 -4.49806 1.22185
37.3457 -4.49353 1.22508
37.375 -4.50204 1.22239
37.3759 -4.51559 1.21965
37.4136 -4.51027 1.22667
37.416 -4.51031 1.22425
37.4603 -4.51632 1.21362
37.436 -4.49202 1.22904
37.4667 -4.48142 1.2087
37.4735 -4.50023 1.216
37.5138 -4.48801 1.21897
37.5354 -4.47493 1.20901
37.5694 -4.50163 1.22265
37.5601 -4.50945 1.20509
37.5841 -4.50369 1.21575
37.6035 -4.50797 1.21681
37.6283 -4.52286 1.21904
37.6334 -4.4924 1.20058
37.6475 -4.4944 1.21617
37.6756 -4.47716 1.22169
37.6958 -4.50851 1.19604
37.7174 -4.48589 1.2004
37.73 -4.48474 1.21636
37.779 -4.46389 1.21026
37.7698 -4.48795 1.20675
37.7976 -4.48972 1.19233
37.8178 -4.50732 1.20071
37.8393 -4.48464 1.19956
37.8595 -4.49765 1.18403
37.8762 -4.49878 1.19354
37.9053 -4.50299 1.19826
37.8979 -4.5007 1.2039
37.9218 -4.49778 1.20345
37.947 -4.50603 1.21442
37.9511 -4.50618 1.1874
37.9807 -4.49133 1.20634
37.9978 -4.47091 1.19438
38.0018 -4.5077 1.18254
38.0336 -4.51083 1.18519
38.0851 -4.50197 1.19996
38.0713 -4.50234 1.20164
38.0731 -4.50141 1.19547
38.1036 -4.50038 1.19487
38.1137 -4.49049 1.18447
38.1554 -4.4999 1.19858
38.148 -4.49695 1.17209
38.1778 -4.48655 1.18379
38.2124 -4.48987 1.17183
38.2137 -4.48879 1.18236
38.2439 -4.49857 1.17558
38.2603 -4.49511 1.18472
38.2652 -4.49373 1.17544
38.2812 -4.50994 1.17399
38.2962 -4.48653 1.17137
38.3371 -4.4918 1.16106
38.3448 -4.50171 1.16542
38.373 -4.4921 1.18576
38.4033 -4.48525 1.17835
38.3969 -4.52255 1.17646
38.4235 -4.5033 1.15969
38.4368 -4.49408 1.14041
38.4384 -4.49318 1.17111
38.4727 -4.51116 1.17932
38.4923 -4.48133 1.1589
38.5352 -4.5154 1.17244
38.5404 -4.51772 1.16939
38.5543 -4.49037 1.1836
38.5743 -4.48416 1.15801
38.5813 -4.51197 1.15426
38.6098 -4.50461 1.14499
38.6302 -4.49197 1.13902
38.6376 -4.50803 1.16698
38.653 -4.49182 1.15743
38.7009 -4.50295 1.15399
38.7007 -4.50852 1.14798
38.7284 -4.49946 1.15127
38.7183 -4.5046 1.16034
38.7673 -4.49628 1.15542
38.7808 -4.49333 1.17101
38.7938 -4.50965 1.14117
38.8203 -4.50064 1.15407
38.8271 -4.49584 1.14379
38.8382 -4.49753 1.15065
38.8713 -4.50833 1.14672
38.8917 -4.50508 1.15305
38.9124 -4.50078 1.13744
38.9401 -4.51053 1.13731
38.9373 -4.49461 1.1284
38.9744 -4.50531 1.16937
38.9729 -4.51326 1.13839
38.9907 -4.48968 1.14006
39.0129 -4.48116 1.14809
39.0363 -4.49334 1.12784
39.0551 -4.50339 1.14354
39.0771 -4.49627 1.13218
39.0989 -4.48843 1.12694
39.1095 -4.48998 1.13678
39.1551 -4.51494 1.11997
39.1496 -4.50802 1.13105
39.167 -4.51476 1.15796
39.1848 -4.49628 1.13067
39.2083 -4.5004 1.12628
39.2259 -4.4887 1.1193
39.2238 -4.49711 1.12813
39.2608 -4.49724 1.12663
39.2823 -4.50083 1.13301
39.2842 -4.49381 1.12146
39.3157 -4.51046 1.11559
39.3364 -4.5111 1.10571
39.3645 -4.49486 1.13542
39.3703 -4.49862 1.11963
39.3829 -4.50763 1.12042
39.4137 -4.48025 1.13171
39.4367 -4.48913 1.12059
39.4533 -4.49197 1.11389
39.4913 -4.49179 1.11054
39.4809 -4.50572 1.10212
39.4962 -4.50129 1.12179
39.5097 -4.5174 1.12172
39.545 -4.51772 1.10677
39.5538 -4.50153 1.12198
39.5873 -4.49359 1.11282
39.5988 -4.50502 1.10431
39.6163 -4.4984 1.10749
39.6211 -4.49052 1.11588
39.6464 -4.49953 1.11323
39.6775 -4.50337 1.10156
39.6842 -4.50118 1.10721
39.7248 -4.51048 1.09624
39.7116 -4.50483 1.08396
39.7426 -4.50934 1.12899
39.7543 -4.49412 1.10852
39.7803 -4.51477 1.10641
39.79 -4.51298 1.0958
39.8194 -4.48824 1.09956
39.8295 -4.49644 1.0938
39.8444 -4.49719 1.09626
39.8714 -4.51312 1.08138
39.8827 -4.48386 1.07902
39.8993 -4.50903 1.09961
39.9078 -4.48787 1.10328
39.9511 -4.50633 1.09206
39.9726 -4.51334 1.08084
39.9697 -4.49172 1.08405
39.9871 -4.50507 1.08172
40.0107 -4.50396 1.06654
40.0423 -4.49271 1.09908
40.0461 -4.51253 1.08899
40.0658 -4.51561 1.07669
40.097 -4.51579 1.07045
40.1142 -4.48606 1.08425
40.1007 -4.49689 1.08611
40.1302 -4.47648 1.07955
40.1715 -4.50099 1.0906
40.1873 -4.48934 1.07723
40.2138 -4.51279 1.07898
40.2324 -4.48774 1.06644
40.2388 -4.49713 1.07282
40.2763 -4.49661 1.06382
40.2653 -4.50079 1.07824
40.3038 -4.50471 1.06635
40.3094 -4.49997 1.07598
40.3361 -4.50385 1.09431
40.3543 -4.50241 1.0496
40.3693 -4.51558 1.06354
40.3904 -4.4853 1.051
40.4081 -4.50949 1.05738
40.4337 -4.48855 1.05639
40.4472 -4.47268 1.0595
40.4792 -4.50963 1.07704
40.5018 -4.50547 1.06828
40.5067 -4.48528 1.06727
40.5246 -4.50715 1.07169
40.5498 -4.50071 1.06536
40.5539 -4.50034 1.0777
40.5463 -4.4968 1.06473
40.5875 -4.50062 1.06044
40.6256 -4.49087 1.05307
40.632 -4.49813 1.06989
40.6566 -4.51556 1.04582
40.6818 -4.50477 1.0547
40.6679 -4.49691 1.03721
40.7083 -4.49165 1.05514
40.727 -4.49348 1.0464
40.7473 -4.494 1.05104
40.7543 -4.50697 1.05003
40.7723 -4.48832 1.04699
40.8162 -4.48571 1.0406
40.7966 -4.5125 1.05048
40.8519 -4.49826 1.06082
40.8567 -4.48292 1.0582
40.8823 -4.47731 1.03277
40.8904 -4.49992 1.06325
40.9042 -4.50392 1.0515
40.9346 -4.50339 1.0393
40.9407 -4.50209 1.02771
40.9413 -4.49137 1.03986
40.9796 -4.50274 1.04084
40.9989 -4.5096 1.03506
41.0286 -4.49717 1.03711
41.0424 -4.50563 1.03653
41.0612 -4.48205 1.04261
41.0631 -4.48309 1.03845
41.0946 -4.4956 1.03545
41.1127 -4.5134 1.04035
41.1236 -4.49501 1.03818
41.157 -4.50184 1.00832
41.1776 -4.49316 1.03025
41.1863 -4.48742 1.03333
41.2052 -4.49867 1.0225
41.2117 -4.49482 1.02575
41.227 -4.49467 1.02184
41.2495 -4.49695 1.02454
41.296 -4.4954 1.01684
41.3068 -4.51198 1.02985
41.3217 -4.50853 1.01087
41.3298 -4.49231 1.01732
41.3607 -4.51554 1.01477
41.3631 -4.49487 1.02243
41.3865 -4.4934 0.99471
41.424 -4.49172 1.02267
41.4384 -4.49128 1.02965
41.4472 -4.51136 1.02207
41.4567 -4.51817 0.995341
41.4993 -4.50566 1.01719
41.5054 -4.50689 1.0295
41.5278 -4.50817 1.02234
41.5442 -4.5036 1.02164
41.5495 -4.50681 0.998201
41.5836 -4.50239 1.00684
41.6059 -4.49463 1.00021
41.6209 -4.50957 1.00911
41.6425 -4.51211 1.01222
41.6518 -4.50262 0.98762
41.6923 -4.49245 1.00439
41.6781 -4.50009 1.02325
41.7041 -4.49212 1.02363
41.7255 -4.49933 1.00289
41.7443 -4.50184 1.01374
41.7696 -4.50356 1.02628
41.7849 -4.49015 1.00606
41.7966 -4.49704 0.997245
41.7957 -4.50559 0.992425
41.8457 -4.4944 0.988204
41.8548 -4.50557 0.989108
41.8563 -4.50617 0.973838
41.8916 -4.48868 1.01884
41.9095 -4.49613 0.994064
41.9234 -4.49507 0.978109
41.9618 -4.49037 0.995874
41.9419 -4.51517 0.986985
41.9854 -4.50759 0.983201
42.0068 -4.48193 0.986828
42.0289 -4.50767 0.989637
42.0465 -4.50474 0.996946
42.0691 -4.48637 0.99595
42.0746 -4.5058 0.985199
42.0892 -4.50935 0.978736
42.1042 -4.4988 0.981767
42.1298 -4.49618 0.992119
42.169 -4.47923 0.974945
42.1784 -4.50103 0.987919
42.203 -4.50186 0.966282
42.1838 -4.49998 0.978221
42.2235 -4.48953 0.974738
42.2434 -4.49416 0.979884
42.2596 -4.50032 0.96751
42.2876 -4.498 0.97258
42.3069 -4.49311 0.97904
42.314 -4.49708 0.987266
42.3385 -4.53101 0.988815
42.3585 -4.49181 0.973449
42.3861 -4.48802 0.97785
42.385 -4.49517 0.955679
42.4232 -4.50532 0.961167
42.425 -4.49475 0.954334
42.4492 -4.50528 0.959056
42.4652 -4.49981 0.955374
42.4966 -4.51753 0.96159
42.5198 -4.4905 0.951734
42.5189 -4.51408 0.964015
42.562 -4.50782 0.969993
42.5398 -4.50018 0.966085
42.575 -4.53445 0.949416
42.6024 -4.50819 0.941107
42.6038 -4.50018 0.959834
42.6333 -4.49189 0.975018
42.6528 -4.48717 0.964259
42.6838 -4.50531 0.95402
42.7192 -4.49499 0.965356
42.7117 -4.50083 0.955592
42.7351 -4.50227 0.945382
42.765 -4.4968 0.944446
42.7647 -4.50768 0.959438
42.7955 -4.5087 0.947327
42.7983 -4.49123 0.951214
42.8252 -4.51525 0.935995
42.8446 -4.51679 0.945424
42.8788 -4.50402 0.951653
42.9035 -4.51162 0.949487
42.906 -4.47808 0.945347
42.9064 -4.5009 0.954236
42.9254 -4.5099 0.939639
42.9409 -4.49096 0.947036
42.9747 -4.49449 0.96223
42.9855 -4.49512 0.946602
43.0116 -4.50478 0.923167
43.0086 -4.49379 0.921388
43.0481 -4.49134 0.933981
43.0739 -4.49716 0.935854
43.0775 -4.48634 0.91691
43.1131 -4.49931 0.940398
43.1195 -4.50296 0.929906
43.1374 -4.49884 0.935369
43.1396 -4.48934 0.949695
43.1736 -4.49144 0.936366
43.1966 -4.48585 0.913883
43.1955 -4.49658 0.939013
43.2227 -4.50173 0.9312
43.2392 -4.49899 0.93882
43.2711 -4.50008 0.925954
43.2808 -4.4947 0.914006
43.2918 -4.51698 0.921794
43.331 -4.48879 0.93441
43.35 -4.50846 0.915802
43.3592 -4.4953 0.919955
43.3844 -4.48291 0.950223
43.4087 -4.48438 0.92187
43.4179 -4.50227 0.923296
43.4434 -4.49572 0.914178
43.4463 -4.50077 0.911601
43.4608 -4.50953 0.910952
43.4829 -4.48572 0.899424
43.5194 -4.51074 0.919198
43.527 -4.502 0.912182
43.5447 -4.50759 0.9109
43.5665 -4.50305 0.912221
43.5848 -4.4978 0.903266
43.5992 -4.45848 0.90304
43.6381 -4.47067 0.904305
43.6307 -4.49544 0.913031
43.6541 -4.50905 0.917887
43.6796 -4.49098 0.913964
43.6965 -4.49745 0.90917
43.7035 -4.5066 0.904582
43.7343 -4.49452 0.903418
43.7447 -4.51541 0.894662
43.7821 -4.50585 0.909863
43.7809 -4.49801 0.91284
43.7981 -4.50219 0.904083
43.8245 -4.51766 0.906862
43.8516 -4.49935 0.893418
43.8653 -4.49821 0.889532
43.8908 -4.50587 0.912571
43.8937 -4.49989 0.892287
43.9159 -4.53042 0.917034
43.9256 -4.52367 0.897929
43.9605 -4.49678 0.911549
43.9716 -4.51086 0.895998
43.9918 -4.50372 0.897064
44.0058 -4.49454 0.885404
44.0363 -4.49459 0.896534
44.0512 -4.5025 0.903453
44.0763 -4.49707 0.879212
44.0703 -4.47626 0.912419
44.0936 -4.50918 0.876822
44.1344 -4.48937 0.884006
44.1619 -4.48688 0.886191
44.1468 -4.50568 0.882533
44.1744 -4.52395 0.880906
44.1802 -4.49644 0.900993
44.2327 -4.50473 0.88943
44.2297 -4.48755 0.898683
44.2518 -4.50363 0.896273
44.258 -4.50753 0.888609
44.291 -4.50717 0.874438
44.3154 -4.50832 0.879645
44.3262 -4.49524 0.882626
44.3438 -4.51043 0.890299
44.3722 -4.50977 0.866062
44.3778 -4.47552 0.888839
44.405 -4.48619 0.870715
44.4006 -4.50863 0.885619
44.4464 -4.50023 0.869717
44.4644 -4.50209 0.857122
44.4901 -4.4964 0.872528
44.4703 -4.4869 0.868815
44.504 -4.50539 0.865647
44.5022 -4.49199 0.861643
44.5512 -4.49994 0.879444
44.5724 -4.5057 0.884828
44.5763 -4.48015 0.864002
44.602 -4.51674 0.842808
44.6349 -4.50655 0.865975
44.641 -4.48186 0.867709
44.6681 -4.48579 0.852625
44.6839 -4.49428 0.84985
44.6913 -4.50542 0.845792
44.7176 -4.49281 0.868896
44.7354 -4.5096 0.859798
44.7576 -4.51926 0.839811
44.7678 -4.49745 0.866547
44.7959 -4.48745 0.85486
44.8075 -4.49525 0.846073
44.8248 -4.49558 0.867134
44.8538 -4.50319 0.850013
44.8518 -4.52303 0.851873
44.8809 -4.50586 0.856449
44.906 -4.5141 0.864829
44.9234 -4.49564 0.851418
44.9325 -4.49204 0.838373
44.9387 -4.49975 0.847245
44.9778 -4.49681 0.833101
44.9978 -4.51135 0.861542
45.0236 -4.47934 0.831759
45.0212 -4.4981 0.847051
45.0455 -4.51119 0.835499
45.0723 -4.48977 0.842255
45.0936 -4.47922 0.823934
45.0986 -4.49511 0.838621
45.1209 -4.49452 0.842281
45.1465 -4.50551 0.847968
45.1649 -4.49391 0.843838
45.1878 -4.49957 0.849407
45.1979 -4.49481 0.82431
45.2269 -4.50488 0.829339
45.226 -4.50753 0.830491
45.2591 -4.50737 0.823492
45.2735 -4.51366 0.813887
45.285 -4.50216 0.824648
45.3139 -4.51858 0.830754
45.3412 -4.49551 0.827272
45.3424 -4.49605 0.822032
45.3735 -4.53665 0.80843
45.3827 -4.50076 0.814909
45.4122 -4.49871 0.824926
45.4175 -4.50524 0.822329
45.4165 -4.48623 0.814764
45.4622 -4.50004 0.826429
45.4751 -4.50565 0.82351
45.5107 -4.50249 0.825274
45.5216 -4.49737 0.81506
45.5339 -4.51234 0.816861
45.529 -4.50201 0.83088
45.5585 -4.49079 0.833256
45.5831 -4.49413 0.805055
45.6053 -4.5182 0.805495
45.6476 -4.49986 0.808357
45.6421 -4.49789 0.811274
45.666 -4.49333 0.826519
45.6832 -4.5038 0.83205
45.7252 -4.50938 0.817281
45.7246 -4.51362 0.816851
45.7199 -4.49385 0.806318
45.7591 -4.49133 0.805963
45.7801 -4.49621 0.812101
45.7969 -4.50243 0.795027
45.8116 -4.49357 0.796227
45.8299 -4.50538 0.787751
45.8608 -4.50418 0.805001
45.8676 -4.4991 0.792692
45.8735 -4.49557 0.80285
45.9044 -4.49117 0.806305
45.9183 -4.49718 0.788621
45.9339 -4.51001 0.795442
45.9393 -4.51232 0.809078
45.9912 -4.49485 0.787512
45.9931 -4.49753 0.78006
46.0167 -4.50699 0.794833
46.0301 -4.50147 0.770337
46.046 -4.49673 0.788253
46.0683 -4.49594 0.807757
46.0776 -4.50403 0.796681
46.1094 -4.5096 0.801854
46.139 -4.49314 0.800696
46.1414 -4.50374 0.788971
46.1583 -4.50599 0.805446
46.2 -4.52051 0.773464
46.209 -4.49272 0.786645
46.2219 -4.50098 0.778354
46.2577 -4.48156 0.8011
46.2669 -4.49763 0.800457
46.2669 -4.49612 0.785656
46.2865 -4.50676 0.799246
46.3046 -4.51665 0.783339
46.3348 -4.50418 0.778319
46.3373 -4.49525 0.78202
46.3765 -4.51078 0.77444
46.3763 -4.4905 0.792458
46.4129 -4.49428 0.758786
46.4185 -4.50139 0.781706
46.4344 -4.50551 0.767731
46.452 -4.48357 0.77899
46.4845 -4.52254 0.773935
46.5147 -4.49915 0.780294
46.5116 -4.51127 0.777342
46.5336 -4.50075 0.758458
46.5495 -4.49582 0.769941
46.5751 -4.49666 0.758594
46.6012 -4.49514 0.762348
46.6121 -4.52006 0.770451
46.6347 -4.50842 0.75708
46.6405 -4.5031 0.786483
46.6559 -4.51883 0.759593
46.6879 -4.48567 0.753918
46.6961 -4.51193 0.759798
46.7094 -4.50771 0.771871
46.7219 -4.50346 0.768769
46.7535 -4.49025 0.766314
46.7767 -4.51799 0.749199
46.8175 -4.50005 0.755836
46.82 -4.52188 0.758151
46.825 -4.51166 0.752112
46.8483 -4.50223 0.758818
46.8491 -4.49507 0.75087
46.8945 -4.49676 0.767379
46.905 -4.49386 0.748932
46.9115 -4.48707 0.766577
46.9365 -4.51187 0.757836
46.9474 -4.50123 0.759297
46.9868 -4.50086 0.735826
47.0011 -4.49215 0.752268
47.0139 -4.49015 0.742519
47.0399 -4.47715 0.745741
47.0459 -4.50671 0.759451
47.0711 -4.49969 0.74787
47.0949 -4.4872 0.726817
47.105 -4.49799 0.743041
47.1268 -4.50078 0.723167
47.1542 -4.49483 0.737836
47.188 -4.50574 0.74292
47.1716 -4.48953 0.744799
47.197 -4.49946 0.760527
47.2206 -4.49904 0.730421
47.2351 -4.50139 0.734709
47.2534 -4.50189 0.72492
47.2658 -4.49112 0.746241
47.2983 -4.51002 0.729396
47.3143 -4.49943 0.739447
47.3362 -4.49627 0.747429
47.3528 -4.47879 0.729631
47.3686 -4.52443 0.7225
47.3838 -4.50725 0.728415
47.411 -4.49103 0.719466
47.4253 -4.49892 0.724279
47.4351 -4.49049 0.724306
47.4715 -4.48967 0.744617
47.485 -4.49882 0.733511
47.4989 -4.47967 0.751312
47.519 -4.51288 0.71771
47.5383 -4.50644 0.739201
47.5508 -4.50475 0.726245
47.5705 -4.48872 0.725771
47.5998 -4.50252 0.725146
47.6157 -4.48887 0.732565
47.6452 -4.49774 0.732339
47.6647 -4.50115 0.748912
47.6692 -4.49997 0.724439
47.6982 -4.50457 0.704171
47.7136 -4.50248 0.701147
47.7099 -4.49356 0.716416
47.7408 -4.5094 0.725349
47.7546 -4.48003 0.718006
47.7701 -4.50597 0.716695
47.7997 -4.50385 0.70269
47.8036 -4.49231 0.732502
47.8362 -4.50324 0.696633
47.8497 -4.49549 0.696843
47.8737 -4.52792 0.713509
47.8863 -4.49947 0.725078
47.9089 -4.49191 0.719077
47.9339 -4.48609 0.698246
47.9462 -4.49911 0.698916
47.9739 -4.50388 0.706031
47.9924 -4.49107 0.710007
47.9885 -4.49345 0.713518
48.0132 -4.48641 0.712872
48.0195 -4.50074 0.692128
48.0645 -4.50633 0.691679
48.0777 -4.50372 0.696263
48.1038 -4.50034 0.70488
48.1154 -4.50481 0.714559
48.1341 -4.51093 0.702642
48.1532 -4.50435 0.694384
48.1771 -4.49936 0.690362
48.1922 -4.51672 0.695123
48.1822 -4.50303 0.689249
48.2386 -4.51374 0.700615
48.2514 -4.49711 0.708312
48.2561 -4.49657 0.699696
48.2737 -4.50594 0.677842
48.2712 -4.4802 0.690362
48.3275 -4.50826 0.687707
48.3459 -4.49385 0.684786
48.3699 -4.49207 0.705703
48.3881 -4.49615 0.692705
48.3926 -4.47833 0.691263
48.4118 -4.50139 0.696849
48.4323 -4.51891 0.680703
48.4542 -4.50777 0.691657
48.464 -4.50225 0.695145
48.4738 -4.50737 0.684341
48.508 -4.50424 0.68021
48.5247 -4.5102 0.700489
48.5323 -4.49484 0.685503
48.5621 -4.52486 0.692178
48.5706 -4.50377 0.6822
48.5916 -4.49067 0.668055
48.6174 -4.50155 0.674094
48.6434 -4.50036 0.674697
48.6641 -4.51013 0.66793
48.6715 -4.5007 0.666724
48.6928 -4.49041 0.659429
48.7166 -4.48436 0.67904
48.7266 -4.50324 0.678865
48.7489 -4.51425 0.679717
48.7725 -4.52225 0.66073
48.7637 -4.50622 0.662253
48.8029 -4.49403 0.663746
48.8237 -4.49234 0.658216
48.8477 -4.5079 0.672995
48.8347 -4.49564 0.663317
48.864 -4.51328 0.66726
48.8966 -4.50552 0.655129
48.9054 -4.49951 0.6688
48.932 -4.50922 0.667804
48.9652 -4.49871 0.648708
48.9662 -4.49065 0.654529
48.9951 -4.49023 0.651446
49.0045 -4.50372 0.671033
49.02 -4.49203 0.661562
49.0601 -4.49659 0.655989
49.0586 -4.50814 0.648864
49.0783 -4.49653 0.655619
49.0861 -4.49781 0.648912
49.1087 -4.50405 0.661896
49.1274 -4.50354 0.651679
49.1467 -4.50915 0.66126
49.1491 -4.49464 0.644485
49.1844 -4.50488 0.647404
49.222 -4.48782 0.650803
49.229 -4.49912 0.666878
49.2318 -4.49008 0.644259
49.259 -4.5 0.654516
49.2834 -4.49664 0.637613
49.2962 -4.49418 0.673052
49.314 -4.50747 0.646778
49.3331 -4.49608 0.652151
49.3536 -4.50378 0.643635
49.3666 -4.4831 0.663816
49.4053 -4.50181 0.640643
49.4203 -4.49886 0.641708
49.445 -4.49937 0.627759
49.4515 -4.48229 0.63151
49.4679 -4.48597 0.629333
49.4819 -4.49846 0.626838
49.52 -4.50062 0.630788
49.5176 -4.51255 0.630262
49.532 -4.49966 0.619417
49.5785 -4.49982 0.626622
49.5745 -4.50516 0.630513
49.6207 -4.49907 0.621876
49.6066 -4.5107 0.622226
49.642 -4.50368 0.627388
49.6385 -4.49937 0.628384
49.6835 -4.50861 0.651869
49.7 -4.4917 0.635806
49.7143 -4.4956 0.62702
49.7217 -4.52511 0.637493
49.7578 -4.51115 0.629201
49.7665 -4.5078 0.603749
49.7867 -4.5043 0.627361
49.7885 -4.50202 0.623926
49.8256 -4.49753 0.629383
49.8675 -4.48624 0.618972
49.8606 -4.49512 0.62339
49.8783 -4.50585 0.62481
49.8964 -4.50806 0.611702
49.9144 -4.50125 0.614033
49.9245 -4.49378 0.625814
49.952 -4.50728 0.626525
49.9797 -4.5007 0.62208
49.9949 -4.51101 0.608779
50.0056 -4.49986 0.599378
50.0181 -4.5044 0.612993
50.0434 -4.51447 0.603079
50.0596 -4.50418 0.610831
50.0812 -4.50334 0.614672
50.0972 -4.50533 0.60562
50.1122 -4.5068 0.610584
50.1542 -4.49575 0.602654
50.1534 -4.52547 0.618092
50.1548 -4.51861 0.603096
50.2036 -4.49072 0.606993
50.2213 -4.51421 0.599712
50.2139 -4.4984 0.607042
50.2418 -4.52496 0.615635
50.2676 -4.49762 0.600464
50.2815 -4.50248 0.598987
50.2824 -4.49553 0.603778
50.334 -4.4942 0.605213
50.3412 -4.48527 0.615381
50.3594 -4.49291 0.611014
50.3653 -4.50305 0.59389
50.4032 -4.49151 0.588428
50.41 -4.4997 0.593187
50.44 -4.48689 0.584698
50.4688 -4.49608 0.57012
50.4653 -4.49807 0.595566
50.4942 -4.48502 0.592893
50.5018 -4.50716 0.595703
50.5393 -4.48963 0.588553
50.5436 -4.51219 0.613499
50.5547 -4.49951 0.593124
50.5695 -4.49335 0.579678
50.6094 -4.48689 0.593441
50.6101 -4.50655 0.589128
50.6442 -4.51067 0.589154
50.678 -4.50405 0.579283
50.6712 -4.51281 0.585638
50.7046 -4.50021 0.591902
50.7048 -4.51045 0.590782
50.7177 -4.49796 0.588568
50.7395 -4.48615 0.584064
50.7518 -4.49214 0.564077
50.7958 -4.50685 0.591916
50.8047 -4.5038 0.598216
50.8324 -4.49791 0.573033
50.8349 -4.49039 0.578962
50.8596 -4.51538 0.570393
50.8785 -4.49742 0.573251
50.8985 -4.50464 0.594532
50.9223 -4.50018 0.586527
50.9326 -4.50877 0.590191
50.9399 -4.49097 0.591608
50.9927 -4.50161 0.574111
50.9924 -4.51638 0.563596
51.0002 -4.50001 0.567879
51.0284 -4.50251 0.560659
51.0613 -4.49507 0.585398
51.0645 -4.50394 0.589838
51.0706 -4.47795 0.574238
51.1168 -4.5 0.575392
51.1023 -4.5234 0.570982
51.1419 -4.50912 0.569611
51.1499 -4.4989 0.568907
51.1691 -4.51156 0.56748
51.1946 -4.49844 0.572614
51.2077 -4.50362 0.573012
51.2339 -4.49929 0.560401
51.2301 -4.49411 0.55147
51.2715 -4.49809 0.56562
51.2867 -4.49246 0.547624
51.3128 -4.50701 0.564173
51.3331 -4.50155 0.562393
51.3597 -4.50484 0.560985
51.347 -4.49923 0.55276
51.3762 -4.50132 0.547159
51.3895 -4.49992 0.560664
51.4204 -4.51389 0.564596
51.434 -4.50727 0.568859
51.4485 -4.48546 0.548272
51.4832 -4.49129 0.545552
51.4899 -4.49872 0.560602
51.5035 -4.49593 0.551044
51.5201 -4.49903 0.55798
51.5307 -4.50011 0.570893
51.5737 -4.51092 0.544025
51.5886 -4.50944 0.529436
51.6112 -4.48236 0.55228
51.6318 -4.51544 0.542368
51.647 -4.50697 0.546969
51.6738 -4.50306 0.539223
51.6747 -4.48475 0.522308
51.6945 -4.49532 0.535968
51.709 -4.4965 0.536272
51.7141 -4.51141 0.541147
51.7513 -4.48872 0.518093
51.7574 -4.50723 0.537524
51.7711 -4.49267 0.560899
51.7903 -4.49428 0.550984
51.8418 -4.5057 0.531683
51.8405 -4.50959 0.531834
51.8632 -4.50734 0.561592
51.8875 -4.4851 0.543937
51.91 -4.50975 0.511621
51.9114 -4.52773 0.525125
51.934 -4.50066 0.530664
51.9609 -4.49614 0.521541
51.9736 -4.49382 0.540125
51.9614 -4.48418 0.508341
52.0079 -4.50202 0.526469
52.0116 -4.48763 0.525215
52.0496 -4.49662 0.521897
52.0738 -4.4913 0.550332
52.0646 -4.48527 0.519045
52.0952 -4.51314 0.52786
52.1222 -4.49835 0.520966
52.1366 -4.51234 0.514379
52.1364 -4.51215 0.538737
52.1842 -4.50012 0.501411
52.1962 -4.49929 0.498209
52.2201 -4.50944 0.508919
52.2287 -4.5096 0.519529
52.249 -4.51672 0.534187
52.2691 -4.50031 0.516117
52.2981 -4.483 0.522123
52.3011 -4.49464 0.512363
52.3388 -4.49952 0.539322
52.3541 -4.48682 0.520878
52.3487 -4.49329 0.509776
52.3795 -4.48442 0.527136
52.392 -4.50524 0.517195
52.4204 -4.4934 0.516469
52.4463 -4.51256 0.512956
52.4674 -4.49631 0.513182
52.473 -4.50787 0.504085
52.5028 -4.47455 0.502878
52.5199 -4.51074 0.507975
52.5298 -4.49412 0.497002
52.5432 -4.50577 0.510818
52.5549 -4.51841 0.506171
52.577 -4.50317 0.511688
52.6024 -4.49348 0.507245
52.6005 -4.502 0.519711
52.6304 -4.49299 0.518196
52.6603 -4.49897 0.489452
52.6819 -4.50879 0.489346
52.6962 -4.51673 0.506612
52.7223 -4.47967 0.504118
52.7463 -4.49634 0.505836
52.7528 -4.50386 0.498776
52.7854 -4.50669 0.494253
52.7865 -4.49307 0.486348
52.8189 -4.49697 0.491291
52.8261 -4.47702 0.479216
52.854 -4.49792 0.490787
52.8604 -4.48926 0.500109
52.8859 -4.50228 0.497134
52.9068 -4.49627 0.486021
52.923 -4.51984 0.479877
52.9281 -4.5022 0.489358
52.9769 -4.50403 0.489288
52.9725 -4.50316 0.495482
52.9932 -4.50189 0.492556
53.0086 -4.49896 0.487523
53.0259 -4.49471 0.494114
53.0542 -4.51089 0.484465
53.064 -4.48725 0.489924
53.0805 -4.50592 0.492114
53.108 -4.50381 0.492093
53.1193 -4.49721 0.487987
53.1499 -4.49511 0.474778
53.1504 -4.48982 0.49781
53.1754 -4.49046 0.483173
53.1982 -4.4953 0.475452
53.199 -4.51028 0.468888
53.2516 -4.49425 0.473291
53.269 -4.51196 0.471331
53.2803 -4.47573 0.485367
53.2803 -4.48718 0.469954
53.3085 -4.48871 0.468083
53.327 -4.50093 0.476203
53.3435 -4.4761 0.482994
53.3712 -4.50209 0.459493
53.3788 -4.50971 0.464907
53.4009 -4.4982 0.469401
53.4258 -4.49278 0.473294
53.4525 -4.50247 0.464079
53.4394 -4.51179 0.465029
53.4629 -4.49256 0.470041
53.4815 -4.49883 0.474586
53.5155 -4.50222 0.452904
53.5341 -4.52946 0.466713
53.546 -4.4949 0.461879
53.5659 -4.50169 0.467017
53.5991 -4.4975 0.474776
53.6166 -4.50887 0.454366
53.6254 -4.50985 0.462791
53.639 -4.48473 0.465737
53.6637 -4.52165 0.467815
53.6617 -4.49835 0.457639
53.6997 -4.49492 0.465899
53.7125 -4.48679 0.448467
53.737 -4.51246 0.456043
53.7692 -4.48966 0.445096
53.771 -4.49096 0.466864
53.7874 -4.49053 0.439356
53.8047 -4.49176 0.463022
53.8293 -4.50135 0.452906
53.8426 -4.49926 0.457132
53.8964 -4.50244 0.456989
53.9017 -4.51442 0.439654
53.9101 -4.51207 0.453504
53.9074 -4.50559 0.437098
53.9368 -4.48382 0.453406
53.9584 -4.502 0.431271
53.9868 -4.53121 0.446921
54.008 -4.49091 0.443926
54.0192 -4.50441 0.449551
54.0274 -4.51331 0.445375
54.0408 -4.50001 0.447519
54.0651 -4.47418 0.435847
54.0795 -4.50192 0.449933
54.1209 -4.50136 0.444992
54.1151 -4.48396 0.449097
54.1442 -4.48605 0.449691
54.177 -4.50104 0.429638
54.1697 -4.5024 0.462201
54.2129 -4.49363 0.451922
54.1989 -4.49313 0.442848
54.2318 -4.5035 0.438722
54.2496 -4.50895 0.437247
54.279 -4.50542 0.429258
54.2824 -4.49831 0.428256
54.3035 -4.50463 0.430998
54.3292 -4.49784 0.43529
54.3555 -4.50506 0.434373
54.3777 -4.50328 0.42592
54.3918 -4.49541 0.434773
54.3749 -4.49896 0.424821
54.4289 -4.49524 0.455273
54.445 -4.48633 0.444837
54.4599 -4.49458 0.447589
54.4948 -4.50594 0.428424
54.5105 -4.4983 0.435938
54.5148 -4.49391 0.436922
54.5464 -4.50028 0.426178
54.5662 -4.50001 0.435588
54.578 -4.50062 0.412849
54.5825 -4.47378 0.418933
54.6151 -4.49842 0.408345
54.6262 -4.48729 0.427886
54.6628 -4.50578 0.42085
54.6605 -4.51267 0.419975
54.6885 -4.51885 0.406453
54.7053 -4.50332 0.409358
54.7225 -4.4955 0.415885
54.7356 -4.49785 0.435863
54.7778 -4.50102 0.421879
54.7747 -4.48541 0.424054
54.8106 -4.48272 0.408665
54.8029 -4.49665 0.418986
54.8314 -4.50814 0.424983
54.8429 -4.48612 0.422131
54.8625 -4.49386 0.41664
54.8801 -4.51628 0.40393
54.905 -4.48035 0.401721
54.9169 -4.51174 0.408039
54.9413 -4.49479 0.419047
54.9568 -4.50113 0.401561
54.9786 -4.51382 0.393351
54.9986 -4.50662 0.425076
55.0058 -4.49597 0.40596
55.0447 -4.4926 0.387934
55.052 -4.50372 0.408975
55.0644 -4.4866 0.409687
55.0677 -4.49541 0.41089
55.1142 -4.51242 0.393641
55.1262 -4.50625 0.393524
55.1504 -4.49345 0.401115
55.1584 -4.49806 0.408971
55.1492 -4.51822 0.399611
55.2184 -4.48943 0.392547
55.2118 -4.48999 0.385412
55.2347 -4.50769 0.409593
55.2505 -4.49894 0.385578
55.2735 -4.49107 0.400189
55.288 -4.49606 0.40143
55.3073 -4.49452 0.38087
55.3249 -4.50074 0.381375
55.3433 -4.49331 0.401156
55.3996 -4.49912 0.406244
55.3955 -4.49544 0.379178
55.391 -4.51113 0.396089
55.4215 -4.49783 0.376236
55.4513 -4.48631 0.383368
55.4588 -4.50627 0.399617
55.4706 -4.47945 0.38517
55.5003 -4.50978 0.38564
55.5039 -4.50033 0.378577
55.5368 -4.51395 0.370155
55.5487 -4.48994 0.377204
55.5616 -4.48305 0.379741
55.5752 -4.50714 0.393767
55.6174 -4.47775 0.361834
55.6443 -4.47669 0.388693
55.6392 -4.50134 0.385013
55.6614 -4.48314 0.370899
55.6725 -4.50396 0.374129
55.6755 -4.48995 0.360485
55.7137 -4.49523 0.389901
55.7383 -4.4916 0.381213
55.7675 -4.48955 0.382754
55.7783 -4.51648 0.366424
55.8073 -4.48125 0.389769
55.8177 -4.49624 0.37341
55.842 -4.51689 0.362138
55.854 -4.48859 0.350407
55.8864 -4.4984 0.379892
55.8809 -4.49139 0.377883
55.9053 -4.50039 0.371103
55.9186 -4.50201 0.37806
55.9523 -4.49326 0.366013
55.9591 -4.49699 0.356732
55.9811 -4.50019 0.365763
56.0198 -4.5053 0.379408
56.0196 -4.49381 0.366346
56.0407 -4.51257 0.371784
56.0545 -4.509 0.364641
56.0835 -4.50223 0.36486
56.0807 -4.48892 0.360127
56.113 -4.50384 0.366294
56.1259 -4.51837 0.353455
56.1313 -4.50348 0.350404
56.1648 -4.47332 0.379175
56.1864 -4.50653 0.354941
56.2082 -4.50515 0.377563
56.2304 -4.50151 0.350107
56.2454 -4.50718 0.360836
56.274 -4.49636 0.370936
56.2612 -4.4844 0.362211
56.297 -4.51369 0.346941
56.3195 -4.49784 0.348274
56.3354 -4.48902 0.339315
56.3574 -4.51529 0.342388
56.3712 -4.48424 0.353896
56.3945 -4.50297 0.361199
56.4196 -4.50973 0.369393
56.4125 -4.49676 0.343425
56.4505 -4.50085 0.355292
56.4718 -4.493 0.336356
56.4769 -4.49012 0.350224
56.508 -4.51447 0.361944
56.5222 -4.49874 0.353538
56.5315 -4.48636 0.353194
56.555 -4.5072 0.322544
56.5744 -4.50675 0.348004
56.6071 -4.49947 0.33284
56.6189 -4.50238 0.338251
56.6177 -4.49344 0.329284
56.651 -4.4923 0.337488
56.6657 -4.51113 0.351737
56.6894 -4.50632 0.328174
56.6893 -4.48297 0.348972
56.7377 -4.49442 0.333946
56.7294 -4.49394 0.361096
56.7657 -4.49335 0.333207
56.7597 -4.50028 0.34246
56.7985 -4.50333 0.343861
56.8158 -4.50122 0.352732
56.8397 -4.49357 0.334141
56.8612 -4.49903 0.342608
56.8842 -4.49143 0.324877
56.9001 -4.50815 0.319416
56.8912 -4.50227 0.322169
56.9226 -4.51098 0.321315
56.9614 -4.51839 0.348245
56.9783 -4.51641 0.337786
56.9772 -4.51836 0.332788
57.0113 -4.49025 0.330312
57.0398 -4.4925 0.350395
57.0343 -4.49017 0.335932
57.0596 -4.48814 0.350452
57.0771 -4.48643 0.307486
57.0911 -4.48496 0.328204
57.1012 -4.50458 0.327209
57.1275 -4.49729 0.34509
57.1479 -4.4855 0.339609
57.1706 -4.49904 0.346869
57.1847 -4.50048 0.310513
57.2019 -4.49658 0.309434
57.2234 -4.49507 0.310321
57.2455 -4.48945 0.337748
57.2685 -4.49813 0.31993
57.2854 -4.50787 0.316391
57.3069 -4.48492 0.307147
57.3269 -4.49936 0.31369
57.331 -4.49615 0.312547
57.3535 -4.48692 0.320186
57.3833 -4.50568 0.330939
57.4089 -4.4937 0.315793
57.4187 -4.49033 0.316397
57.4295 -4.48782 0.325327
57.4429 -4.49838 0.305386
57.4807 -4.50475 0.314596
57.4913 -4.50783 0.318673
57.5018 -4.50578 0.300627
57.5309 -4.52567 0.306132
57.5387 -4.50788 0.313576
57.5585 -4.49596 0.313188
57.5744 -4.51251 0.320902
57.5877 -4.51117 0.312866
57.6182 -4.5011 0.311022
57.6503 -4.49552 0.30047
57.6433 -4.5081 0.310991
57.686 -4.50804 0.293321
57.7038 -4.49352 0.295496
57.7127 -4.49397 0.301784
57.717 -4.49471 0.317056
57.7603 -4.49066 0.301618
57.7511 -4.51116 0.31399
57.7951 -4.50387 0.312871
57.7977 -4.49471 0.312835
57.811 -4.49986 0.302369
57.8404 -4.49985 0.308248
57.8472 -4.49655 0.307412
57.8564 -4.50426 0.281452
57.8834 -4.51674 0.294547
57.9175 -4.48642 0.299775
57.9403 -4.48978 0.290677
57.9546 -4.50357 0.292306
57.9767 -4.49718 0.305352
57.9916 -4.50358 0.292574
57.9972 -4.52099 0.29005
58.0178 -4.49091 0.305491
58.0415 -4.50505 0.289624
58.0617 -4.49298 0.295043
58.0868 -4.49877 0.303119
58.1063 -4.50477 0.297279
58.1117 -4.50005 0.30143
58.135 -4.49729 0.279713
58.168 -4.5047 0.269308
58.1723 -4.53008 0.28342
58.1895 -4.50273 0.308611
58.2011 -4.50981 0.292103
58.2354 -4.50761 0.294003
58.2417 -4.49227 0.290932
58.2677 -4.49347 0.284667
58.2871 -4.50132 0.245493
58.2824 -4.50582 0.283493
58.3164 -4.50069 0.29113
58.3399 -4.50693 0.26311
58.3409 -4.49705 0.280515
58.3725 -4.49871 0.267487
58.4248 -4.50802 0.279891
58.4117 -4.49965 0.274437
58.431 -4.50501 0.268773
58.4648 -4.51054 0.259945
58.4679 -4.49407 0.273879
58.4848 -4.49856 0.274162
58.5087 -4.50918 0.277045
58.5232 -4.49779 0.259116
58.5472 -4.48533 0.270387
58.551 -4.49558 0.27938
58.5918 -4.49733 0.268126
58.595 -4.50317 0.266819
58.6195 -4.48329 0.281578
58.6411 -4.50158 0.274034
58.6667 -4.49334 0.261942
58.6705 -4.50656 0.279289
58.6772 -4.48981 0.274088
58.7175 -4.5101 0.261897
58.7422 -4.49631 0.269053
58.753 -4.49579 0.26762
58.783 -4.49575 0.274366
58.7844 -4.48237 0.272663
58.7943 -4.51695 0.266149
58.8221 -4.48214 0.247265
58.8629 -4.49634 0.249778
58.874 -4.49056 0.260453
58.8759 -4.50199 0.266877
58.9102 -4.48554 0.2711
58.9363 -4.50486 0.26175
58.9405 -4.48279 0.241095
58.9542 -4.48919 0.25541
58.9711 -4.49777 0.248004
58.9887 -4.51819 0.268216
59.0059 -4.49596 0.248527
59.0292 -4.48854 0.239578
59.0429 -4.51083 0.26599
59.0702 -4.51828 0.259544
59.0797 -4.50928 0.240486
59.0842 -4.50468 0.256704
59.1079 -4.50165 0.231986
59.141 -4.50099 0.242031
59.1568 -4.49781 0.249922
59.1761 -4.49797 0.227958
59.1947 -4.51354 0.249804
59.2122 -4.50613 0.245878
59.2248 -4.49412 0.246694
59.2353 -4.4854 0.250433
59.271 -4.5017 0.252647
59.2827 -4.50445 0.248893
59.3012 -4.4872 0.236755
59.3121 -4.51305 0.2341
59.348 -4.51032 0.246401
59.3632 -4.49628 0.235101
59.3631 -4.51475 0.253422
59.3952 -4.48864 0.247037
59.4094 -4.5105 0.249933
59.4505 -4.49713 0.223606
59.4733 -4.50408 0.228001
59.4764 -4.49933 0.232649
59.4869 -4.4964 0.229716
59.5227 -4.50375 0.247579
59.5187 -4.49859 0.246164
59.5505 -4.48782 0.230871
59.558 -4.49974 0.21301
59.5905 -4.48659 0.212269
59.6122 -4.50378 0.241682
59.621 -4.47518 0.226937
59.6415 -4.50248 0.218528
59.6482 -4.50345 0.242713
59.664 -4.49265 0.216729
59.6983 -4.49617 0.218265
59.7034 -4.50487 0.222452
59.724 -4.49994 0.229672
59.7486 -4.49817 0.2194
59.7576 -4.4818 0.233184
59.7857 -4.50524 0.226478
59.8109 -4.48185 0.224099
59.8214 -4.50346 0.215931
59.8585 -4.51817 0.230938
59.8601 -4.50312 0.229521
59.8851 -4.50754 0.223305
59.8881 -4.51266 0.214797
59.9172 -4.49472 0.20361
59.9235 -4.50095 0.193672
59.9502 -4.51531 0.206369
59.9857 -4.49661 0.210476
59.9963 -4.48873 0.195388
60.0003 -4.48866 0.223189
60.0291 -4.49068 0.218349
60.0443 -4.51067 0.228366
60.0584 -4.49223 0.215856
60.0765 -4.5067 0.212014
60.0945 -4.50236 0.201521
60.1221 -4.50131 0.207992
60.1347 -4.50147 0.213315
60.1722 -4.49307 0.214664
60.1639 -4.51523 0.219977
60.1873 -4.52151 0.208876
60.2196 -4.51408 0.210101
60.2333 -4.50645 0.222655
60.2579 -4.51231 0.210641
60.2713 -4.49718 0.207174
60.2907 -4.49463 0.188486
60.309 -4.48481 0.204896
60.3304 -4.51415 0.203317
60.3345 -4.49486 0.204785
60.3672 -4.48137 0.205596
60.38 -4.49434 0.199071
60.398 -4.49213 0.205061
60.4174 -4.50548 0.204002
60.4471 -4.48753 0.214818
60.4616 -4.49993 0.199297
60.4629 -4.49613 0.175092
60.5133 -4.50153 0.195672
60.5188 -4.50862 0.204284
60.5303 -4.52524 0.203672
60.5546 -4.47129 0.195984
60.572 -4.503 0.202615
60.5734 -4.49952 0.194625
60.6128 -4.50595 0.187766
60.6299 -4.49518 0.207674
60.6612 -4.49279 0.200322
60.6632 -4.49767 0.182594
60.671 -4.49167 0.192096
60.6952 -4.47538 0.176582
60.6942 -4.49609 0.191359
60.7359 -4.49819 0.184234
60.7534 -4.48803 0.192687
60.7645 -4.50889 0.190671
60.793 -4.49524 0.191147
60.8163 -4.50048 0.190732
60.8376 -4.50764 0.199085
60.8369 -4.48363 0.177139
60.8603 -4.49395 0.176965
60.8802 -4.50508 0.192419
60.8923 -4.50313 0.193985
60.9216 -4.49911 0.174221
60.9392 -4.5135 0.187619
60.9427 -4.51288 0.185985
60.9824 -4.49747 0.177855
60.9911 -4.49048 0.177501
61.0132 -4.49571 0.167985
61.0259 -4.50203 0.18158
61.0539 -4.49736 0.18554
61.0639 -4.50122 0.159998
61.0883 -4.48891 0.181848
61.0882 -4.51153 0.178557
61.1344 -4.51254 0.166982
61.1287 -4.49737 0.18183
61.1421 -4.5103 0.176624
61.2024 -4.50312 0.16313
61.1944 -4.50579 0.170745
61.2074 -4.49072 0.188999
61.2333 -4.50167 0.16789
61.2499 -4.48619 0.186216
61.2791 -4.49564 0.179279
61.2999 -4.49953 0.149965
61.3059 -4.51034 0.165663
61.3209 -4.50959 0.162022
61.3468 -4.50075 0.176949
61.3544 -4.48304 0.153986
61.3937 -4.51693 0.182418
61.386 -4.48082 0.180247
61.4276 -4.50327 0.167623
61.4343 -4.50297 0.158889
61.4538 -4.50018 0.16301
61.488 -4.51682 0.17399
61.4887 -4.486 0.162446
61.5084 -4.50639 0.152341
61.5418 -4.49698 0.172765
61.5524 -4.50346 0.142525
61.5706 -4.48998 0.143678
61.5983 -4.49813 0.163079
61.6099 -4.51353 0.150544
61.6331 -4.50566 0.169156
61.648 -4.51415 0.161205
61.6644 -4.49956 0.156262
61.6699 -4.49485 0.156072
61.6925 -4.48755 0.153044
61.6983 -4.47934 0.17322
61.741 -4.48588 0.146712
61.7627 -4.48336 0.153337
61.7646 -4.49505 0.138961
61.79 -4.49999 0.135402
61.8249 -4.49585 0.146915
61.8417 -4.51097 0.158354
61.8374 -4.51487 0.142933
61.8651 -4.49574 0.150937
61.8814 -4.50957 0.160539
61.8973 -4.51805 0.145901
61.9096 -4.4829 0.138304
61.9082 -4.49867 0.162432
61.9599 -4.49582 0.132672
61.9886 -4.4986 0.149136
62.0075 -4.50314 0.156925
62.0224 -4.49092 0.130349
62.0443 -4.48391 0.125557
62.066 -4.50079 0.137905
62.0661 -4.48925 0.150574
62.0961 -4.49079 0.136913
62.1023 -4.50863 0.128744
62.1308 -4.50094 0.128359
62.1546 -4.47669 0.137241
62.1771 -4.51408 0.117247
62.1768 -4.48219 0.148341
62.2103 -4.48072 0.145471
62.2163 -4.49318 0.14497
62.2442 -4.49122 0.144846
62.282 -4.49656 0.149289
62.2821 -4.50583 0.139253
62.2879 -4.49616 0.136735
62.3079 -4.48777 0.130388
62.3331 -4.50561 0.139079
62.3567 -4.50073 0.107958
62.364 -4.50357 0.12991
62.4026 -4.50619 0.138707
62.3884 -4.51295 0.137899
62.4221 -4.50352 0.12819
62.4489 -4.51515 0.122935
62.4604 -4.50809 0.108138
62.4768 -4.49406 0.128681
62.4873 -4.50057 0.123516
62.509 -4.5032 0.126137
62.5296 -4.50873 0.147825
62.5519 -4.49766 0.128648
62.5601 -4.50536 0.0966286
62.5922 -4.48414 0.127966
62.5994 -4.49544 0.148372
62.6316 -4.49481 0.128277
62.6465 -4.49037 0.148818
62.6508 -4.50746 0.135624
62.6846 -4.50732 0.136976
62.694 -4.50692 0.120152
62.7019 -4.50074 0.126091
62.7529 -4.5126 0.112195
62.7658 -4.50114 0.128795
62.7865 -4.51474 0.120717
62.792 -4.49682 0.11522
62.8118 -4.47809 0.123976
62.8266 -4.49923 0.107215
62.8374 -4.47633 0.0987424
62.8704 -4.49059 0.108819
62.8865 -4.49479 0.0802228
62.8984 -4.49991 0.10703
62.931 -4.49864 0.127206
62.9557 -4.51532 0.111486
62.9626 -4.49419 0.0989047
62.9697 -4.49354 0.114243
62.992 -4.518 0.101857
63.0197 -4.50132 0.098767
63.0267 -4.52516 0.115328
63.0441 -4.49156 0.108128
63.0894 -4.49016 0.111932
63.0974 -4.51123 0.115472
63.1191 -4.4943 0.113966
63.1283 -4.50964 0.10167
63.129 -4.49071 0.0950745
63.1546 -4.49218 0.114311
63.1836 -4.50596 0.0939658
63.1935 -4.49199 0.0903937
63.2151 -4.50248 0.0944103
63.2391 -4.52038 0.126467
63.2515 -4.50917 0.0974209
63.2856 -4.47779 0.102985
63.3129 -4.50982 0.105229
63.3243 -4.47659 0.0905714
63.3215 -4.50086 0.127001
63.3489 -4.49327 0.0820994
63.3823 -4.50525 0.111144
63.3774 -4.47918 0.0868637
63.3935 -4.49012 0.09495
63.4176 -4.49644 0.0858152
63.4395 -4.50319 0.0859143
63.4757 -4.51545 0.0817017
63.4879 -4.48791 0.0959127
63.4808 -4.49208 0.0602348
63.5348 -4.51234 0.0840305
63.5549 -4.4949 0.0967158
63.5571 -4.49982 0.0871518
63.5854 -4.51602 0.0987602
63.6131 -4.48675 0.0973655
63.6277 -4.49199 0.0876136
63.6259 -4.48815 0.0789332
63.6464 -4.48728 0.101356
63.6664 -4.51102 0.079752
63.6733 -4.47338 0.0785141
63.6993 -4.49917 0.0889946
63.7412 -4.50747 0.063001
63.7319 -4.50782 0.0741853
63.7575 -4.481 0.0786877
63.7839 -4.49553 0.0716038
63.8114 -4.51098 0.0849659
63.8021 -4.50476 0.0899448
63.8432 -4.49487 0.0727042
63.8631 -4.51411 0.0862821
63.8827 -4.51092 0.0697022
63.8815 -4.5 0.0843757
63.9156 -4.48907 0.0677572
63.9429 -4.50574 0.0844398
63.9568 -4.50707 0.0792375
63.9612 -4.50309 0.0780479
63.9824 -4.52228 0.0680976
63.9947 -4.50711 0.0756631
64.0226 -4.5012 0.0831102
64.0355 -4.51165 0.0598693
64.065 -4.49325 0.0676429
64.0795 -4.49801 0.0677424
64.0848 -4.49814 0.0891315
64.1052 -4.50496 0.0671053
64.1506 -4.49489 0.0700642
64.1489 -4.49189 0.0405645
64.1789 -4.49617 0.0662191
64.1533 -4.50002 0.0594904
64.1927 -4.51163 0.0647679
64.2294 -4.51294 0.0752168
64.2467 -4.51545 0.0585257
64.2605 -4.51914 0.0518453
64.2794 -4.50402 0.0673939
64.2988 -4.49516 0.0603304
64.3264 -4.50165 0.0543907
64.3217 -4.48827 0.0913372
64.3333 -4.48194 0.0665884
64.371 -4.48834 0.0752778
64.38 -4.50837 0.0490151
64.4191 -4.50022 0.057749
64.4309 -4.50499 0.0709467
64.4487 -4.50141 0.0624581
64.4637 -4.51619 0.051374
64.4771 -4.50375 0.0556885
64.4871 -4.4869 0.0622347
64.5374 -4.5038 0.0492105
64.5579 -4.49696 0.0496053
64.5613 -4.50154 0.0545257
64.5787 -4.49856 0.0385227
64.6091 -4.50075 0.0632595
64.6203 -4.49784 0.0501852
64.6475 -4.49685 0.0505277
64.6568 -4.50483 0.0523311
64.6842 -4.51381 0.040323
64.6879 -4.48069 0.0569754
64.7003 -4.50443 0.0448964
64.7122 -4.49158 0.0438518
64.7257 -4.51234 0.0472839
64.7604 -4.48687 0.0516758
64.7814 -4.49543 0.0551231
64.8188 -4.50905 0.0328926
64.8224 -4.50456 0.0723017
64.8466 -4.49402 0.0544455
64.8709 -4.5092 0.0546917
64.8727 -4.50838 0.0380345
64.9049 -4.49722 0.0462193
64.9025 -4.49524 0.05524
64.9225 -4.52607 0.0563016
64.9356 -4.50029 0.0320627
64.9745 -4.49324 0.045049
64.9743 -4.51699 0.0414732
65.0106 -4.50639 0.0557613
65.0229 -4.49633 0.0497138
65.0516 -4.51776 0.0442624
65.0645 -4.49784 0.0437291
65.0868 -4.49655 0.0366967
65.0827 -4.51471 0.0439
65.1204 -4.49531 0.0376495
65.1421 -4.49833 0.0336251
65.1766 -4.50976 0.0459308
65.1704 -4.49045 0.035428
65.1991 -4.4969 0.0448562
65.2127 -4.50454 0.0353037
65.2242 -4.48974 0.033843
65.2347 -4.49337 0.0211366
65.2568 -4.49007 0.0561169
65.2871 -4.4719 0.0275074
65.2952 -4.50239 0.0425331
65.3351 -4.48242 0.0507112
65.3332 -4.49796 0.0335003
65.3653 -4.51711 0.0412354
65.3744 -4.48929 0.0258212
65.3974 -4.49826 0.0304624
65.416 -4.50541 0.0212912
65.432 -4.50233 0.0383831
65.4325 -4.50931 0.0196532
65.4699 -4.50553 0.0288474
65.4681 -4.50074 0.0501139
65.5064 -4.51555 0.038054
65.5203 -4.5107 0.0160113
65.5485 -4.50864 0.032908
65.5724 -4.51071 0.0217961
65.578 -4.49835 0.019071
65.5899 -4.5042 0.0297846
65.6195 -4.49764 0.0116109
65.6395 -4.52542 0.0275168
65.6484 -4.49475 0.0336404
65.6714 -4.50875 0.0334334
65.7069 -4.50358 0.0254952
65.7153 -4.4875 0.0215944
65.722 -4.50325 0.00351561
65.757 -4.50359 0.024426
65.7601 -4.50258 0.0181268
65.7926 -4.49391 0.0404726
65.7988 -4.47885 0.0210167
65.8322 -4.48909 0.0164086
65.8442 -4.49196 -0.00147309
65.8467 -4.5117 -0.00391032
65.8744 -4.49437 0.00688916
65.8951 -4.51594 0.0186706
65.9032 -4.48672 0.0135039
65.9381 -4.49709 0.0197714
65.9485 -4.5043 0.0335029
65.9737 -4.50886 0.0243916
65.9756 -4.51027 -0.0157507
66.0187 -4.50006 0.00690361
66.019 -4.49118 -0.00139773
66.0438 -4.4905 0.0229589
66.0646 -4.51909 0.00688762
66.0668 -4.49471 0.0159698
66.0845 -4.49044 0.00852682
66.1116 -4.50547 -0.0102716
66.1312 -4.49975 0.00701985
66.1484 -4.48983 0.00925037
66.1873 -4.49812 0.000782938
66.1973 -4.51064 -0.00186568
66.2025 -4.5074 -0.0053313
66.2307 -4.51243 0.00929685
66.2616 -4.49041 0.0056907
66.2686 -4.5111 -0.00281615
66.2758 -4.50104 -0.00153068
66.2824 -4.49441 0.00280874
66.3124 -4.51342 0.00962957
66.3282 -4.49278 -0.00859544
66.3515 -4.50059 0.000257228
66.3882 -4.50206 -0.0228942
66.3933 -4.49838 -0.00369611
66.4134 -4.49841 0.000258901
66.4146 -4.49304 0.0222601
66.4509 -4.50942 0.00426225
66.4613 -4.49961 -0.00381476
66.4813 -4.5012 -0.0180086
66.5223 -4.49744 -0.0159767
66.5333 -4.50461 -0.00976303
66.5539 -4.48961 -0.00767841
66.5663 -4.4937 -0.00153661
66.5807 -4.51477 -0.015494
66.5866 -4.50201 -0.00652833
66.6166 -4.49765 -0.0162568
66.6413 -4.48747 -0.00868537
66.6687 -4.50194 -0.00818983
66.6779 -4.49037 -0.030993
66.6955 -4.49215 -0.0355727
66.7259 -4.50234 -0.0295794
66.7414 -4.5119 -0.00275643
66.7493 -4.49199 -0.00692816
66.757 -4.49145 -0.00136102
66.7868 -4.50512 -0.0225012
66.7968 -4.49527 -0.0224255
66.8163 -4.50235 -0.020232
66.8248 -4.493 -0.0281433
66.8477 -4.50405 -0.00244019
66.8583 -4.4964 -0.0358536
66.8979 -4.49775 -0.0196187
66.9112 -4.49582 -0.0142043
66.9372 -4.51368 -0.0118177
66.9533 -4.49582 -0.0283159
66.9733 -4.49755 -0.0145022
66.9868 -4.50384 -0.0346807
67.013 -4.49358 -0.0277129
67.0389 -4.51196 -0.0282144
67.038 -4.5083 -0.0387284
67.032 -4.50007 -0.0292692
67.0852 -4.49699 -0.0303459
67.0974 -4.50479 -0.0372861
67.1409 -4.51682 -0.0216421
67.1335 -4.50683 -0.0273132
67.1538 -4.48639 -0.0261147
67.1662 -4.49293 -0.0241009
67.1907 -4.50364 -0.0242822
67.2218 -4.50351 -0.035079
67.2337 -4.51659 -0.0532172
67.2413 -4.51349 -0.0375827
67.2797 -4.5019 -0.0170506
67.3016 -4.49845 -0.0225977
67.296 -4.51045 -0.0295899
67.3297 -4.48627 -0.0343298
67.3328 -4.50468 -0.0235345
67.3577 -4.4809 -0.0431828
67.3859 -4.50054 -0.0328638
67.409 -4.51285 -0.0524159
67.4065 -4.49389 -0.0170139
67.4426 -4.50105 -0.0427601
67.4313 -4.49365 -0.0337613
67.4785 -4.50724 -0.045405
67.4938 -4.48853 -0.0452039
67.5129 -4.48808 -0.0339516
67.5161 -4.51022 -0.0439192
67.5598 -4.49826 -0.0331709
67.5598 -4.51051 -0.0383859
67.5996 -4.51178 -0.0477534
67.5892 -4.49546 -0.0354196
67.626 -4.49105 -0.0441687
67.6283 -4.47697 -0.058104
67.6515 -4.51393 -0.0448908
67.6701 -4.49438 -0.0440146
67.6876 -4.50691 -0.0362443
67.7288 -4.50269 -0.051235
67.7245 -4.49184 -0.0404307
67.7538 -4.50269 -0.0470853
67.7554 -4.50542 -0.0351002
67.7799 -4.49927 -0.0413812
67.8041 -4.52142 -0.0569676
67.8198 -4.49686 -0.0351602
67.851 -4.49998 -0.0379244
67.8558 -4.51142 -0.0484775
67.8768 -4.50503 -0.0688525
67.8756 -4.49845 -0.0311167
67.9329 -4.50276 -0.0437271
67.9434 -4.50578 -0.05235
67.9457 -4.503 -0.0553888
67.9822 -4.49211 -0.0641209
67.9906 -4.51117 -0.0555047
68.0183 -4.47856 -0.0373983
68.0262 -4.49076 -0.0552194
68.0481 -4.49498 -0.0581485
68.0601 -4.49341 -0.0701889
68.088 -4.50905 -0.0760012
68.1035 -4.51046 -0.0535729
68.1201 -4.50689 -0.0533909
68.1239 -4.47974 -0.057403
68.1429 -4.50468 -0.0700626
68.1838 -4.49982 -0.0475734
68.209 -4.49208 -0.0666691
68.2274 -4.51667 -0.056527
68.2262 -4.5066 -0.0660359
68.229 -4.49245 -0.0572592
68.2654 -4.50089 -0.0613272
68.3143 -4.50638 -0.0770481
68.3183 -4.49326 -0.0590218
68.3235 -4.49928 -0.0980273
68.3471 -4.50276 -0.0565141
68.3542 -4.48775 -0.0631166
68.3811 -4.5018 -0.0561353
68.3902 -4.49394 -0.0836574
68.4044 -4.50604 -0.0735535
68.4457 -4.49925 -0.0656428
68.4494 -4.49562 -0.0886868
68.473 -4.50566 -0.0727713
68.5012 -4.49048 -0.0783742
68.5307 -4.5238 -0.0722063
68.5221 -4.49364 -0.0744239
68.5414 -4.507 -0.0408398
68.5629 -4.49534 -0.0492928
68.5822 -4.48862 -0.0838305
68.5906 -4.50588 -0.0700074
68.618 -4.50057 -0.0722689
68.6619 -4.50242 -0.0742927
68.6564 -4.50904 -0.0631263
68.6774 -4.49784 -0.0765978
68.6969 -4.50599 -0.066312
68.7035 -4.49905 -0.0700029
68.7337 -4.51022 -0.0543218
68.7529 -4.4925 -0.0786458
68.7737 -4.50464 -0.0770257
68.7806 -4.48817 -0.0759715
68.802 -4.4935 -0.0732281
68.835 -4.49247 -0.07647
68.8434 -4.4913 -0.0931064
68.8519 -4.50197 -0.0757707
68.8761 -4.50644 -0.0886869
68.9185 -4.48504 -0.0778843
68.9031 -4.50627 -0.0660537
68.9117 -4.50507 -0.0706942
68.9703 -4.49264 -0.0854528
68.961 -4.49785 -0.0738035
68.9984 -4.51087 -0.089869
69.0201 -4.49569 -0.0707858
69.0285 -4.49591 -0.0768713
69.0438 -4.51534 -0.0862778
69.0752 -4.49153 -0.101801
69.1066 -4.49195 -0.0717853
69.1061 -4.50946 -0.0834214
69.1315 -4.49521 -0.0737554
69.1406 -4.4955 -0.0971374
69.1496 -4.48695 -0.0753716
69.1862 -4.50461 -0.09415
69.2031 -4.49478 -0.0991559
69.2075 -4.49007 -0.0739612
69.2402 -4.52141 -0.0864474
69.2622 -4.50398 -0.087682
69.2849 -4.49863 -0.111018
69.2907 -4.50818 -0.0826905
69.3061 -4.50803 -0.0936102
